ply
format ascii 1.0
comment Created by CloudCompare v2.13.2 (Kharkiv - Jul  6 2024)
comment Created 2024-11-21T11:09:14
obj_info Generated by CloudCompare!
element vertex 968
property float x
property float y
property float z
property uchar red
property uchar green
property uchar blue
property float scalar_Original_cloud_index
end_header
-3.742961 19.711107 33.052349 27 13 12 14.000000 
-3.738939 19.711864 32.985569 16 18 13 14.000000 
-3.737871 19.711597 32.925392 25 18 15 14.000000 
-3.737201 19.711523 32.896015 17 17 12 14.000000 
-3.737507 19.711161 32.873474 11 18 10 14.000000 
-3.740986 19.708414 32.741287 39 25 28 14.000000 
-3.784509 19.690876 32.616409 155 131 88 14.000000 
-3.767622 19.706793 33.890400 54 29 20 14.000000 
-3.733053 19.719210 33.858994 54 35 24 14.000000 
-3.784214 19.697639 33.617115 7 12 8 14.000000 
-3.707186 19.725822 33.593441 92 39 21 14.000000 
-3.750112 19.708622 33.471420 12 12 13 14.000000 
-3.749141 19.708158 33.396954 12 11 7 14.000000 
-3.743033 19.708138 33.190701 17 12 7 14.000000 
-3.742280 19.707960 33.149452 22 17 15 14.000000 
-3.742977 19.707422 33.123856 29 20 14 14.000000 
-3.809856 19.687239 33.920403 29 22 13 14.000000 
-3.756896 19.705124 33.779419 6 6 3 14.000000 
-3.756514 19.704552 33.714844 8 9 9 14.000000 
-3.781829 19.694649 33.659916 12 11 9 14.000000 
-3.776288 19.696419 33.635994 13 10 7 14.000000 
-3.751064 19.705137 33.586765 33 19 8 14.000000 
-3.744063 19.703781 33.230850 13 12 10 14.000000 
-3.745743 19.701401 33.070656 27 15 17 14.000000 
-3.718102 19.709232 32.859306 130 107 49 14.000000 
-3.794173 19.688543 33.906170 40 25 15 14.000000 
-3.746809 19.705690 33.892914 43 34 12 14.000000 
-3.712419 19.717894 33.860931 66 41 32 14.000000 
-3.762251 19.697052 33.621555 8 9 2 14.000000 
-3.751447 19.699711 33.505066 12 6 2 14.000000 
-3.748701 19.700113 33.450584 9 9 6 14.000000 
-3.744045 19.700443 33.326366 18 10 10 14.000000 
-3.722521 19.708178 33.314926 22 18 13 14.000000 
-3.743829 19.699936 33.273163 23 18 18 14.000000 
-3.743406 19.698229 33.104061 23 19 12 14.000000 
-3.743202 19.697512 33.031925 25 19 16 14.000000 
-3.738880 19.698366 32.966038 23 19 16 14.000000 
-3.740906 19.695351 32.758648 47 24 26 14.000000 
-3.787786 19.686920 33.925270 33 17 13 14.000000 
-3.726067 19.708893 33.885681 59 28 24 14.000000 
-3.757647 19.695957 33.752769 11 9 7 14.000000 
-3.755491 19.696062 33.691261 10 9 7 14.000000 
-3.759993 19.694130 33.664249 12 6 6 14.000000 
-3.722395 19.706955 33.589249 53 30 17 14.000000 
-3.744942 19.696241 33.360100 11 13 7 14.000000 
-3.743928 19.694967 33.210785 21 13 6 14.000000 
-3.742466 19.695047 33.169933 20 13 10 14.000000 
-3.741595 19.693592 33.008579 22 21 9 14.000000 
-3.738240 19.694084 32.942421 27 26 20 14.000000 
-3.738562 19.693632 32.911896 21 20 11 14.000000 
-3.737984 19.693279 32.860504 30 19 13 14.000000 
-3.740857 19.690802 32.729637 31 18 20 14.000000 
-3.770725 19.688276 33.912701 27 18 8 14.000000 
-3.751013 19.690651 33.482681 10 6 9 14.000000 
-3.747141 19.691469 33.430077 12 8 7 14.000000 
-3.745840 19.691442 33.384895 10 9 6 14.000000 
-3.742130 19.691929 33.307350 17 10 10 14.000000 
-3.743917 19.690680 33.252361 21 9 11 14.000000 
-3.743155 19.689657 33.134235 23 12 13 14.000000 
-3.744684 19.688196 33.051388 16 11 7 14.000000 
-3.739555 19.689327 32.985748 26 14 8 14.000000 
-3.738641 19.688587 32.888023 31 16 11 14.000000 
-3.698230 19.702856 32.858822 132 109 51 14.000000 
-3.763634 19.686714 33.932686 35 16 12 14.000000 
-3.703513 19.707821 33.890076 58 36 23 14.000000 
-3.757454 19.686674 33.727509 12 7 6 14.000000 
-3.753968 19.686932 33.637157 4 11 7 14.000000 
-3.754019 19.686573 33.606270 9 8 7 14.000000 
-3.692937 19.708340 33.592133 77 34 25 14.000000 
-3.747243 19.686842 33.409523 12 5 6 14.000000 
-3.743308 19.685862 33.191288 12 12 6 14.000000 
-3.746578 19.683559 33.088257 41 21 22 14.000000 
-3.669556 19.708725 32.861332 139 103 64 14.000000 
-3.746794 19.687849 33.919586 40 22 19 14.000000 
-3.735051 19.691837 33.901398 72 51 41 14.000000 
-3.757507 19.682371 33.768867 18 8 10 14.000000 
-3.752892 19.682001 33.585487 10 9 7 14.000000 
-3.734362 19.688536 33.578709 51 28 15 14.000000 
-3.750556 19.681463 33.460518 10 9 7 14.000000 
-3.745248 19.681995 33.336491 14 7 7 14.000000 
-3.744113 19.681252 33.231613 13 9 9 14.000000 
-3.743274 19.680269 33.114624 19 17 13 14.000000 
-3.712487 19.688446 32.857906 147 117 72 14.000000 
-3.741378 19.677151 32.767303 40 26 23 14.000000 
-3.742151 19.676640 32.745609 29 19 15 14.000000 
-3.741704 19.676426 32.711399 45 23 21 14.000000 
-3.682143 19.705612 33.892391 56 37 25 14.000000 
-3.757543 19.676802 33.701969 15 9 9 14.000000 
-3.743763 19.676996 33.273952 26 14 17 14.000000 
-3.742754 19.676052 33.154980 16 15 9 14.000000 
-3.745986 19.673973 33.069641 23 14 14 14.000000 
-3.743547 19.674429 33.032242 45 30 24 14.000000 
-3.739521 19.675135 32.966084 23 18 14 14.000000 
-3.739174 19.674929 32.935898 29 18 16 14.000000 
-3.738325 19.674505 32.869473 18 19 12 14.000000 
-3.727465 19.685688 33.943054 35 16 11 14.000000 
-3.719850 19.688105 33.918755 32 15 10 14.000000 
-3.758061 19.672709 33.742424 13 7 8 14.000000 
-3.756268 19.672663 33.680664 14 10 7 14.000000 
-3.755581 19.672684 33.660564 13 6 7 14.000000 
-3.753622 19.672949 33.621651 10 8 6 14.000000 
-3.714502 19.686274 33.579868 44 27 12 14.000000 
-3.749686 19.672337 33.439064 7 7 5 14.000000 
-3.747347 19.672678 33.394920 18 8 12 14.000000 
-3.746760 19.672588 33.367889 10 9 8 14.000000 
-3.744181 19.672935 33.316395 14 7 10 14.000000 
-3.733684 19.676373 33.292595 13 12 8 14.000000 
-3.744089 19.671818 33.211288 19 12 11 14.000000 
-3.744231 19.671394 33.177132 16 10 7 14.000000 
-3.741816 19.670412 33.009018 21 16 8 14.000000 
-3.739102 19.670311 32.912056 22 19 15 14.000000 
-3.683435 19.689358 32.859581 147 111 73 14.000000 
-3.702163 19.689312 33.906654 32 30 5 14.000000 
-3.752401 19.668045 33.570515 12 7 1 14.000000 
-3.694482 19.688457 33.582787 52 31 18 14.000000 
-3.751918 19.667252 33.482422 10 9 7 14.000000 
-3.744376 19.667381 33.252571 9 9 9 14.000000 
-3.743512 19.666397 33.134548 23 17 14 14.000000 
-3.745266 19.664877 33.051476 13 11 9 14.000000 
-3.740283 19.665907 32.985718 21 12 11 14.000000 
-3.739509 19.665113 32.887905 21 15 14 14.000000 
-3.742391 19.662363 32.727783 35 24 22 14.000000 
-3.696604 19.686657 33.935551 33 21 19 14.000000 
-3.757796 19.662987 33.717255 14 4 2 14.000000 
-3.754216 19.662914 33.596653 10 9 5 14.000000 
-3.747933 19.663160 33.418758 10 9 6 14.000000 
-3.745191 19.663343 33.348000 11 10 8 14.000000 
-3.743209 19.661337 33.100468 21 14 7 14.000000 
-3.723457 19.665567 32.857201 138 100 56 14.000000 
-3.697550 19.674599 32.858818 138 98 64 14.000000 
-3.662481 19.686823 32.860947 131 128 59 14.000000 
-3.742333 19.657885 32.754383 31 26 20 14.000000 
-3.742925 19.657148 32.705437 35 22 19 14.000000 
-3.679291 19.687946 33.922806 39 19 14 14.000000 
-3.669419 19.691130 33.901779 103 76 62 14.000000 
-3.758208 19.658863 33.758144 9 9 7 14.000000 
-3.755764 19.658466 33.644276 7 9 9 14.000000 
-3.725735 19.668045 33.570400 51 25 18 14.000000 
-3.751804 19.657827 33.459877 18 9 9 14.000000 
-3.744961 19.658472 33.301659 15 8 8 14.000000 
-3.744355 19.657927 33.232094 14 11 8 14.000000 
-3.746689 19.655460 33.079235 25 15 13 14.000000 
-3.738773 19.656836 32.953671 21 22 9 14.000000 
-3.757369 19.654154 33.692932 6 6 4 14.000000 
-3.756550 19.654217 33.672886 9 9 7 14.000000 
-3.747278 19.654209 33.379128 10 7 8 14.000000 
-3.745694 19.654179 33.326229 9 9 7 14.000000 
-3.744113 19.654161 33.274548 15 19 15 14.000000 
-3.744328 19.653238 33.196388 16 10 9 14.000000 
-3.743786 19.653065 33.163189 21 14 13 14.000000 
-3.744668 19.651340 33.032024 13 13 7 14.000000 
-3.739468 19.652012 32.928959 12 22 9 14.000000 
-3.738544 19.651693 32.870186 20 16 5 14.000000 
-3.653146 19.687868 33.920292 31 20 20 14.000000 
-3.758401 19.649862 33.732597 9 8 6 14.000000 
-3.755023 19.649805 33.621147 12 7 7 14.000000 
-3.754163 19.649668 33.581486 5 6 3 14.000000 
-3.747437 19.651730 33.559849 52 27 24 14.000000 
-3.696884 19.669146 33.572872 53 27 20 14.000000 
-3.751651 19.648966 33.437828 3 10 5 14.000000 
-3.744112 19.648096 33.119926 26 10 11 14.000000 
-3.743244 19.647186 33.008533 21 12 10 14.000000 
-3.740474 19.647743 32.972466 17 15 11 14.000000 
-3.739369 19.647396 32.905254 19 15 13 14.000000 
-3.677104 19.668175 32.858906 140 116 77 14.000000 
-3.742715 19.644432 32.736668 38 25 23 14.000000 
-3.747912 19.645716 33.403183 13 9 10 14.000000 
-3.747260 19.645445 33.357758 10 10 8 14.000000 
-3.745252 19.644991 33.252857 13 11 10 14.000000 
-3.743816 19.644299 33.143723 15 14 9 14.000000 
-3.745727 19.642746 33.060169 18 14 10 14.000000 
-3.743092 19.639696 32.694054 27 25 15 14.000000 
-3.757006 19.641285 33.656796 8 7 5 14.000000 
-3.752900 19.640665 33.471512 14 6 7 14.000000 
-3.743961 19.640947 33.218288 17 10 10 14.000000 
-3.744001 19.639668 33.101082 19 14 11 14.000000 
-3.725816 19.643177 32.856415 130 108 61 14.000000 
-3.700432 19.651766 32.857597 139 104 61 14.000000 
-3.743245 19.636345 32.768974 63 45 28 14.000000 
-3.742356 19.636057 32.714153 42 25 24 14.000000 
-3.758780 19.637556 33.748741 5 6 4 14.000000 
-3.758641 19.637253 33.716511 19 6 7 14.000000 
-3.718822 19.648945 33.560978 38 21 18 14.000000 
-3.746963 19.637074 33.337040 10 6 5 14.000000 
-3.745587 19.637260 33.311592 3 11 0 14.000000 
-3.744270 19.637430 33.286362 14 7 7 14.000000 
-3.743799 19.636475 33.183025 22 11 9 14.000000 
-3.746797 19.634365 33.080673 21 13 11 14.000000 
-3.741304 19.635246 32.991199 24 12 8 14.000000 
-3.740260 19.635195 32.953732 20 18 15 14.000000 
-3.739661 19.634674 32.886612 17 16 12 14.000000 
-3.757514 19.633593 33.695145 5 6 0 14.000000 
-3.756408 19.633297 33.633686 7 6 4 14.000000 
-3.755493 19.633282 33.604042 12 9 8 14.000000 
-3.753903 19.633398 33.565582 13 5 6 14.000000 
-3.751976 19.632799 33.450596 11 6 6 14.000000 
-3.750530 19.632996 33.423904 13 5 5 14.000000 
-3.748360 19.633244 33.379833 14 7 7 14.000000 
-3.745013 19.630714 33.041302 15 16 10 14.000000 
-3.740403 19.631056 32.929722 22 17 15 14.000000 
-3.739712 19.630573 32.863396 23 16 15 14.000000 
-3.744278 19.627043 32.676487 36 26 18 14.000000 
-3.689197 19.650873 33.564693 46 27 13 14.000000 
-3.744921 19.628855 33.239212 15 12 11 14.000000 
-3.744404 19.628206 33.163040 19 12 13 14.000000 
-3.744625 19.627773 33.129528 28 18 11 14.000000 
-3.744598 19.626572 33.016846 16 17 10 14.000000 
-3.740420 19.626770 32.906040 19 9 10 14.000000 
-3.679993 19.646336 32.858109 136 109 68 14.000000 
-3.743017 19.624258 32.752060 39 27 20 14.000000 
-3.743990 19.623701 32.730377 31 29 19 14.000000 
-3.757804 19.625084 33.670425 13 6 6 14.000000 
-3.750960 19.626005 33.546268 37 28 19 14.000000 
-3.731155 19.632599 33.551128 42 27 9 14.000000 
-3.749427 19.624975 33.403587 8 5 9 14.000000 
-3.747058 19.625290 33.360142 10 9 7 14.000000 
-3.745487 19.624769 33.263386 20 12 14 14.000000 
-3.745110 19.624247 33.203247 12 11 6 14.000000 
-3.746463 19.622274 33.061298 17 12 11 14.000000 
-3.741460 19.622971 32.972111 24 12 12 14.000000 
-3.743874 19.619280 32.701962 51 37 28 14.000000 
-3.759487 19.620819 33.730415 14 8 5 14.000000 
-3.746563 19.620674 33.322914 11 10 8 14.000000 
-3.745237 19.620838 33.297562 13 10 9 14.000000 
-3.743741 19.619242 33.103207 20 15 12 14.000000 
-3.711198 19.627287 32.856892 136 112 68 14.000000 
-3.758667 19.616724 33.708397 9 5 4 14.000000 
-3.757335 19.616495 33.646847 8 7 5 14.000000 
-3.756769 19.616354 33.616562 9 7 5 14.000000 
-3.755758 19.616369 33.587254 10 7 9 14.000000 
-3.702847 19.633266 33.553192 44 21 17 14.000000 
-3.752679 19.615730 33.434338 11 10 8 14.000000 
-3.744353 19.615763 33.184376 19 11 11 14.000000 
-3.747692 19.613571 33.081619 18 20 17 14.000000 
-3.742501 19.614388 32.999611 25 21 12 14.000000 
-3.740979 19.614323 32.947212 27 19 15 14.000000 
-3.740450 19.613857 32.887646 31 10 11 14.000000 
-3.744360 19.610210 32.665623 42 23 23 14.000000 
-3.757998 19.612356 33.686314 8 7 4 14.000000 
-3.755359 19.611917 33.565968 16 9 11 14.000000 
-3.748786 19.612066 33.381329 27 16 18 14.000000 
-3.744250 19.611870 33.225815 19 9 8 14.000000 
-3.743922 19.611162 33.149891 22 15 13 14.000000 
-3.745878 19.609375 33.042137 19 11 9 14.000000 
-3.740922 19.609711 32.923347 16 18 16 14.000000 
-3.739935 19.609406 32.864834 21 13 6 14.000000 
-3.744336 19.606421 32.718929 35 25 17 14.000000 
-3.733523 19.614511 33.541943 38 24 17 14.000000 
-3.682983 19.630934 33.554531 47 31 18 14.000000 
-3.751901 19.607212 33.413456 8 8 5 14.000000 
-3.747081 19.608036 33.345222 12 11 9 14.000000 
-3.744424 19.608158 33.276596 9 9 9 14.000000 
-3.745268 19.607594 33.249355 16 11 10 14.000000 
-3.744481 19.606499 33.123177 19 15 10 14.000000 
-3.744766 19.605288 33.018356 26 17 6 14.000000 
-3.690891 19.620935 32.857281 149 117 77 14.000000 
-3.664778 19.629368 32.858711 135 111 66 14.000000 
-3.743460 19.602959 32.760265 37 31 19 14.000000 
-3.744252 19.602474 32.738674 41 25 20 14.000000 
-3.744452 19.601896 32.690491 43 29 13 14.000000 
-3.757627 19.603855 33.662533 11 4 4 14.000000 
-3.754042 19.603739 33.544594 4 10 5 14.000000 
-3.745675 19.603901 33.309357 12 11 9 14.000000 
-3.744688 19.603107 33.205528 17 12 11 14.000000 
-3.747010 19.600836 33.062458 15 16 9 14.000000 
-3.742103 19.601538 32.980869 22 17 16 14.000000 
-3.759649 19.599627 33.721989 12 7 6 14.000000 
-3.756775 19.599566 33.630829 9 9 7 14.000000 
-3.756464 19.599339 33.600422 7 5 3 14.000000 
-3.705190 19.615057 33.544167 49 30 22 14.000000 
-3.753578 19.598608 33.446350 10 9 7 14.000000 
-3.744464 19.598564 33.170555 18 12 12 14.000000 
-3.743956 19.598024 33.104805 29 17 15 14.000000 
-3.741091 19.596804 32.904762 13 14 9 14.000000 
-3.722858 19.602083 32.855270 125 98 57 14.000000 
-3.744821 19.592957 32.654514 40 27 22 14.000000 
-3.745475 19.592531 32.634033 40 30 26 14.000000 
-3.759338 19.595293 33.699375 15 8 8 14.000000 
-3.755824 19.595123 33.579403 7 7 7 14.000000 
-3.749849 19.595020 33.392933 14 10 5 14.000000 
-3.748409 19.595200 33.366901 10 5 7 14.000000 
-3.748497 19.592140 33.082603 26 17 18 14.000000 
-3.744380 19.592560 32.999516 24 17 16 14.000000 
-3.741122 19.593132 32.956444 28 21 18 14.000000 
-3.740500 19.592537 32.881920 11 10 7 14.000000 
-3.744788 19.589331 32.707592 29 22 17 14.000000 
-3.736477 19.596485 33.532257 32 27 14 14.000000 
-3.753488 19.589991 33.424629 8 7 5 14.000000 
-3.747791 19.590771 33.329788 10 8 7 14.000000 
-3.745294 19.591108 33.287884 16 8 10 14.000000 
-3.744746 19.591005 33.262058 21 10 12 14.000000 
-3.745120 19.590607 33.235508 9 9 7 14.000000 
-3.744521 19.589897 33.151196 18 16 10 14.000000 
-3.746816 19.588024 33.043053 12 11 9 14.000000 
-3.741102 19.588646 32.932522 22 21 12 14.000000 
-3.739883 19.588253 32.859337 14 10 9 14.000000 
-3.745074 19.584711 32.679180 44 29 24 14.000000 
-3.758898 19.586563 33.675514 11 10 8 14.000000 
-3.755458 19.586370 33.556664 9 6 8 14.000000 
-3.754016 19.586523 33.528645 14 9 5 14.000000 
-3.744575 19.585888 33.191872 17 11 10 14.000000 
-3.744234 19.585287 33.125324 14 16 13 14.000000 
-3.745799 19.583672 33.019138 24 17 13 14.000000 
-3.702611 19.595428 32.855766 119 79 39 14.000000 
-3.676959 19.603453 32.856937 129 105 64 14.000000 
-3.743931 19.581526 32.761570 41 29 20 14.000000 
-3.744433 19.581142 32.740234 37 23 20 14.000000 
-3.759139 19.582045 33.652645 9 9 7 14.000000 
-3.756533 19.582449 33.614609 8 8 8 14.000000 
-3.707729 19.596745 33.535023 44 24 17 14.000000 
-3.687186 19.603176 33.540333 50 32 20 14.000000 
-3.747115 19.582129 33.309799 13 7 6 14.000000 
-3.744080 19.582083 33.216743 13 11 9 14.000000 
-3.747566 19.579376 33.063759 14 9 6 14.000000 
-3.742874 19.579966 32.981934 23 16 13 14.000000 
-3.808339 19.558575 32.880394 37 27 22 14.000000 
-3.810080 19.557783 32.856770 29 22 19 14.000000 
-3.808270 19.558132 32.836758 13 12 6 14.000000 
-3.745629 19.575251 32.616844 47 32 26 14.000000 
-3.759978 19.577929 33.713402 14 10 11 14.000000 
-3.757148 19.577507 33.591763 9 8 12 14.000000 
-3.752025 19.577084 33.403217 12 8 7 14.000000 
-3.749369 19.577639 33.378487 10 3 3 14.000000 
-3.747880 19.577824 33.352676 9 8 6 14.000000 
-3.744453 19.576969 33.172470 15 12 7 14.000000 
-3.744207 19.576345 33.106392 24 17 14 14.000000 
-3.787080 19.560249 32.833889 47 25 29 14.000000 
-3.717794 19.581821 32.854332 80 46 30 14.000000 
-3.744844 19.571819 32.696617 43 33 28 14.000000 
-3.745509 19.571253 32.662327 37 31 22 14.000000 
-3.722089 19.577906 32.608585 145 129 100 14.000000 
-3.759835 19.573275 33.690578 14 9 5 14.000000 
-3.754344 19.572260 33.436615 14 6 9 14.000000 
-3.745646 19.573191 33.273113 10 9 10 14.000000 
-3.745868 19.572842 33.246597 14 14 9 14.000000 
-3.747606 19.570602 33.085316 39 28 25 14.000000 
-3.744272 19.570736 33.001366 33 21 12 14.000000 
-3.743980 19.567896 32.723663 40 28 15 14.000000 
-3.745660 19.566515 32.641197 47 39 26 14.000000 
-3.756427 19.568508 33.569283 17 5 7 14.000000 
-3.755257 19.568560 33.540749 7 5 3 14.000000 
-3.749599 19.570040 33.518150 37 24 24 14.000000 
-3.729399 19.576237 33.523453 48 28 20 14.000000 
-3.747705 19.568644 33.331829 8 7 8 14.000000 
-3.744393 19.567760 33.153118 21 14 14 14.000000 
-3.747062 19.565802 33.044514 23 12 13 14.000000 
-3.742461 19.566343 32.963303 15 14 10 14.000000 
-3.760708 19.559439 32.834465 32 14 10 14.000000 
-3.681336 19.583792 32.855820 108 71 46 14.000000 
-3.744813 19.563375 32.749538 51 29 27 14.000000 
-3.759113 19.564350 33.667152 9 8 6 14.000000 
-3.758361 19.564257 33.636795 13 8 8 14.000000 
-3.691096 19.583426 33.529404 46 29 8 14.000000 
-3.747113 19.564039 33.295250 8 9 7 14.000000 
-3.744300 19.564182 33.228291 11 10 8 14.000000 
-3.744885 19.563726 33.201908 15 11 9 14.000000 
-3.744367 19.563093 33.126991 21 14 11 14.000000 
-3.745765 19.561554 33.020916 35 23 17 14.000000 
-3.809450 19.540709 32.867401 36 30 20 14.000000 
-3.745386 19.558077 32.679535 36 23 25 14.000000 
-3.735775 19.560226 32.607761 141 112 68 14.000000 
-3.701925 19.570457 32.608582 151 132 84 14.000000 
-3.757812 19.560198 33.615437 4 10 6 14.000000 
-3.754137 19.559170 33.413750 15 9 11 14.000000 
-3.752161 19.559490 33.388092 9 12 9 14.000000 
-3.749412 19.560059 33.363636 15 6 7 14.000000 
-3.748077 19.557312 33.065090 21 16 14 14.000000 
-3.744455 19.557526 32.982185 19 17 11 14.000000 
-3.809888 19.536442 32.844166 30 17 25 14.000000 
-3.796360 19.540331 32.828079 22 27 22 14.000000 
-3.723585 19.562267 32.837425 29 19 17 14.000000 
-3.746408 19.553185 32.624504 52 34 26 14.000000 
-3.760328 19.556110 33.704987 13 7 4 14.000000 
-3.757971 19.555634 33.593277 3 9 5 14.000000 
-3.745942 19.555689 33.258739 11 8 7 14.000000 
-3.744689 19.555262 33.182693 12 10 7 14.000000 
-3.744464 19.554544 33.108112 17 15 10 14.000000 
-3.773904 19.542809 32.826351 18 9 9 14.000000 
-3.785587 19.538990 32.794220 31 28 18 14.000000 
-3.745723 19.550001 32.711304 50 27 27 14.000000 
-3.746338 19.549248 32.656750 54 46 34 14.000000 
-3.759531 19.552176 33.683331 10 5 4 14.000000 
-3.756315 19.551760 33.553673 11 5 5 14.000000 
-3.755747 19.551620 33.524578 9 7 5 14.000000 
-3.732971 19.558249 33.513435 34 19 17 14.000000 
-3.712877 19.564251 33.518429 45 25 13 14.000000 
-3.748667 19.551811 33.343639 9 9 7 14.000000 
-3.748431 19.551598 33.316792 10 9 7 14.000000 
-3.746977 19.549623 33.088116 26 26 12 14.000000 
-3.744832 19.549362 33.002892 12 16 9 14.000000 
-3.745252 19.546463 32.738312 42 34 21 14.000000 
-3.716800 19.553520 32.607227 148 128 87 14.000000 
-3.682388 19.563723 32.608200 153 133 93 14.000000 
-3.760030 19.547714 33.649712 9 10 7 14.000000 
-3.747033 19.547665 33.281521 7 5 4 14.000000 
-3.744327 19.547762 33.214848 16 11 10 14.000000 
-3.744826 19.547075 33.163425 18 10 10 14.000000 
-3.747574 19.545038 33.046295 17 11 8 14.000000 
-3.743217 19.545465 32.964806 27 13 14 14.000000 
-3.785453 19.531454 32.813766 26 23 18 14.000000 
-3.759588 19.538794 32.787628 27 14 17 14.000000 
-3.743869 19.543198 32.766457 35 23 13 14.000000 
-3.758292 19.543770 33.629711 9 9 7 14.000000 
-3.753185 19.543957 33.505379 25 19 12 14.000000 
-3.685069 19.564018 33.520000 63 31 19 14.000000 
-3.753616 19.542721 33.399750 9 6 5 14.000000 
-3.750756 19.543299 33.375290 8 6 4 14.000000 
-3.746349 19.543140 33.237247 15 8 8 14.000000 
-3.745161 19.542435 33.136871 14 9 10 14.000000 
-3.746917 19.540720 33.022106 17 9 11 14.000000 
-3.808826 19.521111 32.877541 49 30 22 14.000000 
-3.746621 19.537382 32.694168 37 29 25 14.000000 
-3.746672 19.536808 32.640514 48 38 30 14.000000 
-3.743688 19.537363 32.610054 98 62 35 14.000000 
-3.758543 19.538952 33.607243 12 5 6 14.000000 
-3.757207 19.539038 33.578411 10 10 8 14.000000 
-3.745278 19.538465 33.194191 21 9 10 14.000000 
-3.748825 19.536102 33.066605 18 14 12 14.000000 
-3.744336 19.536545 32.984516 19 13 9 14.000000 
-3.808806 19.516479 32.854538 28 23 14 14.000000 
-3.808550 19.516329 32.833096 26 21 16 14.000000 
-3.745897 19.532845 32.673527 46 33 30 14.000000 
-3.695711 19.546728 32.608150 161 133 101 14.000000 
-3.754537 19.537464 33.748508 22 18 10 14.000000 
-3.754279 19.537315 33.727150 24 12 7 14.000000 
-3.760013 19.535357 33.698002 11 8 3 14.000000 
-3.759885 19.535061 33.666382 15 9 12 14.000000 
-3.757327 19.534439 33.536797 11 5 5 14.000000 
-3.716137 19.546017 33.508896 41 22 14 14.000000 
-3.750021 19.534641 33.355106 9 7 6 14.000000 
-3.748399 19.534842 33.329712 9 7 6 14.000000 
-3.748354 19.534573 33.302811 0 12 0 14.000000 
-3.745934 19.534836 33.261314 10 9 9 14.000000 
-3.745009 19.533606 33.118134 25 13 14 14.000000 
-3.785656 19.518530 32.796303 49 39 30 14.000000 
-3.745820 19.529293 32.727074 46 31 22 14.000000 
-3.744154 19.530025 33.176056 13 11 9 14.000000 
-3.745494 19.528765 33.091938 24 16 13 14.000000 
-3.746199 19.527643 33.003742 16 9 5 14.000000 
-3.765683 19.519791 32.785152 19 19 12 14.000000 
-3.744387 19.525864 32.783070 52 32 21 14.000000 
-3.745740 19.525171 32.753838 46 27 18 14.000000 
-3.746692 19.523556 32.624516 53 30 16 14.000000 
-3.724408 19.529781 32.609749 147 126 92 14.000000 
-3.759696 19.525906 33.642616 9 5 4 14.000000 
-3.757890 19.525587 33.563103 10 6 5 14.000000 
-3.756738 19.525410 33.514851 9 8 6 14.000000 
-3.736867 19.530901 33.500210 30 18 11 14.000000 
-3.689091 19.544563 33.509418 49 29 18 14.000000 
-3.754516 19.524965 33.411896 6 9 2 14.000000 
-3.753353 19.525019 33.385288 11 8 6 14.000000 
-3.747603 19.525585 33.283226 14 7 6 14.000000 
-3.745942 19.525440 33.223953 15 8 8 14.000000 
-3.744956 19.524935 33.148796 13 10 12 14.000000 
-3.747956 19.523033 33.048027 18 12 12 14.000000 
-3.744776 19.523077 32.965343 22 17 12 14.000000 
-3.790865 19.508528 32.825016 33 29 24 14.000000 
-3.745852 19.520061 32.704521 42 33 22 14.000000 
-3.747280 19.519154 32.656158 54 40 35 14.000000 
-3.760559 19.521723 33.682026 7 6 4 14.000000 
-3.759353 19.521423 33.620869 9 8 6 14.000000 
-3.758545 19.521341 33.591171 8 7 4 14.000000 
-3.755848 19.521097 33.494980 14 14 6 14.000000 
-3.747028 19.518677 33.024101 14 11 9 14.000000 
-3.807505 19.500134 32.880806 48 39 25 14.000000 
-3.752223 19.516102 33.365429 8 7 1 14.000000 
-3.749694 19.516554 33.340958 17 4 6 14.000000 
-3.748595 19.516592 33.315121 14 6 7 14.000000 
-3.747852 19.516165 33.253963 7 7 5 14.000000 
-3.745134 19.516417 33.205135 7 8 5 14.000000 
-3.744836 19.515718 33.129883 16 9 4 14.000000 
-3.749224 19.513935 33.076378 17 15 11 14.000000 
-3.745673 19.513983 32.985275 21 8 10 14.000000 
-3.807459 19.495375 32.857800 45 28 19 14.000000 
-3.807426 19.495159 32.836121 36 33 19 14.000000 
-3.778992 19.502575 32.784111 42 29 21 14.000000 
-3.746341 19.511217 32.736408 55 18 36 14.000000 
-3.746192 19.510696 32.681957 44 30 26 14.000000 
-3.755300 19.514858 33.750526 7 10 10 14.000000 
-3.755271 19.514641 33.728825 8 9 3 14.000000 
-3.756271 19.514124 33.705956 9 5 1 14.000000 
-3.758265 19.511929 33.548264 17 1 4 14.000000 
-3.711092 19.524506 33.498112 44 23 13 14.000000 
-3.744855 19.511036 33.104073 13 12 10 14.000000 
-3.783360 19.497269 32.807434 31 25 17 14.000000 
-3.745448 19.507423 32.771019 31 26 15 14.000000 
-3.746760 19.505709 32.640495 56 39 31 14.000000 
-3.761330 19.508101 33.665966 6 5 3 14.000000 
-3.758957 19.507820 33.576176 3 9 4 14.000000 
-3.757903 19.507607 33.527496 7 7 7 14.000000 
-3.755707 19.506844 33.395763 9 7 8 14.000000 
-3.748823 19.507690 33.294487 10 8 8 14.000000 
-3.747011 19.507574 33.235077 9 7 3 14.000000 
-3.745166 19.507570 33.185719 12 11 12 14.000000 
-3.744929 19.507376 33.160713 15 10 9 14.000000 
-3.748956 19.505207 33.058369 11 11 11 14.000000 
-3.746500 19.505337 33.005592 20 13 13 14.000000 
-3.745001 19.505209 32.953114 29 23 18 14.000000 
-3.760748 19.504099 33.644466 9 9 8 14.000000 
-3.758946 19.504189 33.605457 13 6 6 14.000000 
-3.757607 19.503532 33.506935 10 10 10 14.000000 
-3.741113 19.507854 33.488224 35 12 15 14.000000 
-3.748014 19.501266 33.034481 18 14 8 14.000000 
-3.790673 19.487444 32.827385 26 22 17 14.000000 
-3.760120 19.495367 32.784241 23 15 16 14.000000 
-3.746565 19.498415 32.719730 35 25 21 14.000000 
-3.746350 19.497919 32.665756 31 29 22 14.000000 
-3.760638 19.500467 33.685360 8 7 4 14.000000 
-3.684467 19.519228 33.497154 50 24 18 14.000000 
-3.754438 19.498951 33.376324 11 4 4 14.000000 
-3.752040 19.499348 33.351574 11 9 7 14.000000 
-3.749514 19.499783 33.327251 14 9 6 14.000000 
-3.748771 19.499439 33.274551 10 7 7 14.000000 
-3.746297 19.499512 33.216393 8 7 4 14.000000 
-3.745435 19.498970 33.141357 8 9 6 14.000000 
-3.745772 19.497145 32.973351 14 15 6 14.000000 
-3.806359 19.479673 32.876881 73 50 27 14.000000 
-3.745995 19.494823 32.753872 30 29 16 14.000000 
-3.746681 19.494066 32.698307 35 33 19 14.000000 
-3.747361 19.493120 32.624325 43 42 32 14.000000 
-4.270037 19.357628 33.573414 17 10 12 14.000000 
-3.757140 19.495152 33.485447 10 9 7 14.000000 
-3.714214 19.506777 33.489250 35 21 7 14.000000 
-3.744680 19.494703 33.116306 23 9 7 14.000000 
-3.745445 19.494236 33.091038 23 16 12 14.000000 
-3.806694 19.475256 32.853703 27 19 16 14.000000 
-3.806849 19.474991 32.831894 35 21 14 14.000000 
-3.784309 19.480705 32.795784 71 54 46 14.000000 
-4.270688 19.354731 33.604530 24 9 8 14.000000 
-3.755998 19.494097 33.742615 9 8 5 14.000000 
-3.755692 19.493958 33.721348 7 5 3 14.000000 
-3.759135 19.491373 33.560715 9 8 6 14.000000 
-3.749809 19.491245 33.306595 10 5 5 14.000000 
-3.748522 19.491058 33.254990 12 7 6 14.000000 
-3.745572 19.491261 33.197857 10 10 10 14.000000 
-3.745426 19.491039 33.172619 16 10 10 14.000000 
-3.746835 19.488815 32.993462 17 15 13 14.000000 
-3.745469 19.486919 32.773518 49 34 21 14.000000 
-3.746876 19.485270 32.649471 60 37 31 14.000000 
-3.725861 19.490606 32.620445 195 163 143 14.000000 
-3.704975 19.496176 32.617493 210 176 147 14.000000 
-4.246016 19.357841 33.566814 16 9 5 14.000000 
-3.761578 19.487814 33.669514 14 5 6 14.000000 
-3.761012 19.487539 33.628437 12 6 6 14.000000 
-3.759946 19.487413 33.588749 3 6 2 14.000000 
-3.759034 19.487148 33.539593 9 8 5 14.000000 
-3.750105 19.484663 33.068047 14 14 8 14.000000 
-3.748189 19.484703 33.022354 22 14 11 14.000000 
-3.745345 19.484774 32.955513 27 19 12 14.000000 
-3.747721 19.481886 32.735882 39 26 21 14.000000 
-3.747058 19.481510 32.681927 50 36 30 14.000000 
-3.755158 19.485886 33.697975 14 8 4 14.000000 
-3.760608 19.483936 33.648521 9 10 3 14.000000 
-3.759002 19.483019 33.518623 8 8 6 14.000000 
-3.735983 19.488691 33.478630 19 17 8 14.000000 
-3.688342 19.501375 33.487617 48 27 17 14.000000 
-3.756057 19.482454 33.388237 8 7 1 14.000000 
-3.754015 19.482733 33.362930 11 7 6 14.000000 
-3.751760 19.483074 33.338161 9 7 5 14.000000 
-3.749269 19.483208 33.287174 8 6 4 14.000000 
-3.747303 19.483118 33.228119 11 9 7 14.000000 
-3.745433 19.482849 33.153763 7 7 4 14.000000 
-3.748907 19.480806 33.044353 19 13 12 14.000000 
-3.785919 19.468719 32.820107 36 21 15 14.000000 
-3.764783 19.473925 32.782658 29 19 12 14.000000 
-3.746747 19.478003 32.715305 47 20 22 14.000000 
-4.223939 19.357470 33.567726 12 13 7 14.000000 
-3.758740 19.478785 33.498089 8 8 6 14.000000 
-3.745064 19.478569 33.128212 12 6 8 14.000000 
-3.744776 19.478394 33.103909 12 10 8 14.000000 
-3.746417 19.476646 32.975533 23 17 13 14.000000 
-3.807440 19.459564 32.871208 42 28 20 14.000000 
-3.746303 19.474430 32.756226 37 30 18 14.000000 
-4.270438 19.342470 33.588654 17 11 7 14.000000 
-4.140720 19.373466 33.318802 19 19 13 14.000000 
-4.138263 19.373854 33.294292 28 18 17 14.000000 
-3.757946 19.474810 33.478436 11 8 10 14.000000 
-3.708467 19.487719 33.480473 34 24 15 14.000000 
-3.750739 19.475048 33.319008 13 8 5 14.000000 
-3.748888 19.475002 33.267738 9 7 8 14.000000 
-3.745647 19.474998 33.185051 12 7 6 14.000000 
-3.808105 19.455269 32.847858 32 26 14 14.000000 
-3.784034 19.460966 32.791676 50 32 35 14.000000 
-3.747755 19.469128 32.665504 49 31 19 14.000000 
-4.264481 19.340755 33.564156 24 15 12 14.000000 
-4.245943 19.345413 33.551064 9 10 6 14.000000 
-4.201538 19.357079 33.568905 11 9 6 14.000000 
-3.756057 19.474106 33.746845 3 9 6 14.000000 
-3.756320 19.473810 33.724762 6 3 5 14.000000 
-3.760960 19.471462 33.613171 11 10 6 14.000000 
-3.759953 19.471317 33.573662 7 8 4 14.000000 
-3.747514 19.470776 33.207520 7 6 3 14.000000 
-3.749730 19.468901 33.080563 25 18 20 14.000000 
-3.748036 19.468544 33.003010 18 16 13 14.000000 
-3.796714 19.454174 32.828915 31 22 25 14.000000 
-3.745997 19.466749 32.775799 30 23 20 14.000000 
-3.747097 19.465681 32.698933 39 28 20 14.000000 
-4.247269 19.341738 33.526066 19 10 10 14.000000 
-4.139243 19.367723 33.356579 20 13 5 14.000000 
-4.116507 19.372923 33.294472 14 10 6 14.000000 
-3.760559 19.468212 33.675060 5 10 5 14.000000 
-3.759625 19.467197 33.552750 15 4 8 14.000000 
-3.755446 19.466450 33.375153 9 8 5 14.000000 
-3.753309 19.466742 33.350105 13 8 9 14.000000 
-3.750359 19.466978 33.299355 9 9 14 14.000000 
-3.748860 19.466839 33.248146 6 11 7 14.000000 
-3.745581 19.466843 33.166222 13 11 9 14.000000 
-3.748626 19.464617 33.024956 14 11 10 14.000000 
-3.746451 19.464485 32.957397 12 11 6 14.000000 
-3.747437 19.462006 32.738888 37 27 27 14.000000 
-4.179055 19.356394 33.569870 22 7 12 14.000000 
-4.094600 19.375093 33.295635 13 11 6 14.000000 
-3.755466 19.465666 33.701801 9 8 6 14.000000 
-3.761455 19.463625 33.651539 4 10 5 14.000000 
-3.759351 19.462934 33.531933 6 3 4 14.000000 
-3.740064 19.467192 33.467770 26 14 13 14.000000 
-3.745416 19.462481 33.140331 16 7 11 14.000000 
-3.744769 19.462400 33.116272 13 8 3 14.000000 
-3.750245 19.460449 33.061989 15 14 5 14.000000 
-3.780681 19.450161 32.813457 43 27 26 14.000000 
-3.747285 19.457697 32.717571 41 27 21 14.000000 
-3.747441 19.456903 32.643467 67 41 33 14.000000 
-4.270798 19.330463 33.616863 21 14 11 14.000000 
-4.227064 19.340570 33.524197 10 9 4 14.000000 
-3.761293 19.459438 33.629677 10 9 6 14.000000 
-3.759639 19.458637 33.510647 13 4 5 14.000000 
-3.712693 19.470104 33.470734 27 26 15 14.000000 
-3.692531 19.475252 33.475552 47 22 19 14.000000 
-3.752388 19.458633 33.330769 9 6 6 14.000000 
-3.750072 19.458698 33.279747 7 7 4 14.000000 
-3.748297 19.458632 33.229294 6 7 4 14.000000 
-3.747586 19.456322 32.985115 22 15 11 14.000000 
-3.808381 19.439730 32.865875 59 51 33 14.000000 
-3.769922 19.448586 32.779968 27 21 12 14.000000 
-3.747108 19.454136 32.758320 36 27 23 14.000000 
-3.748018 19.453135 32.682236 50 34 31 14.000000 
-4.157063 19.355700 33.569889 10 5 6 14.000000 
-4.140026 19.357552 33.333168 20 18 10 14.000000 
-4.072302 19.374178 33.296078 10 10 8 14.000000 
-3.761087 19.455423 33.597919 9 8 6 14.000000 
-3.758898 19.454781 33.481197 9 8 5 14.000000 
-3.747523 19.454714 33.194901 8 8 6 14.000000 
-3.808503 19.435743 32.835983 28 20 23 14.000000 
-4.205294 19.339931 33.524708 11 11 5 14.000000 
-4.141392 19.353672 33.311348 27 15 14 14.000000 
-3.760618 19.451286 33.576965 5 9 5 14.000000 
-3.751692 19.452316 33.459915 19 13 9 14.000000 
-3.755375 19.450397 33.361652 8 6 4 14.000000 
-3.752015 19.450720 33.311096 8 5 4 14.000000 
-3.749047 19.450953 33.261253 7 7 5 14.000000 
-3.743676 19.450632 33.098202 8 8 6 14.000000 
-3.749663 19.448586 33.043850 22 14 11 14.000000 
-3.749118 19.448408 33.012886 21 13 13 14.000000 
-3.780530 19.438385 32.796928 70 64 36 14.000000 
-3.746119 19.446777 32.778595 30 24 20 14.000000 
-3.747820 19.445160 32.660812 37 33 35 14.000000 
-4.270915 19.321255 33.590546 20 8 6 14.000000 
-4.270288 19.321192 33.569324 18 14 10 14.000000 
-4.253766 19.325109 33.552834 28 9 10 14.000000 
-4.134724 19.354729 33.570122 9 6 7 14.000000 
-4.134432 19.351959 33.292118 34 24 16 14.000000 
-4.114998 19.356665 33.282043 15 9 8 14.000000 
-4.048748 19.373213 33.297855 9 9 7 14.000000 
-3.760212 19.447224 33.556160 11 3 8 14.000000 
-3.724342 19.455147 33.463043 22 14 7 14.000000 
-3.745562 19.446913 33.169659 9 6 6 14.000000 
-3.746723 19.444576 32.967911 28 13 11 14.000000 
-3.746616 19.444372 32.945148 20 15 9 14.000000 
-3.789107 19.432627 32.823780 28 20 16 14.000000 
-3.747550 19.442078 32.741695 36 31 21 14.000000 
-3.747215 19.441748 32.700901 53 30 29 14.000000 
-4.241731 19.324471 33.517258 21 14 13 14.000000 
-4.183887 19.338734 33.524281 6 9 5 14.000000 
-4.140379 19.347712 33.357937 18 11 7 14.000000 
-4.116140 19.352579 33.252121 25 17 10 14.000000 
-3.761754 19.443228 33.613953 14 7 9 14.000000 
-3.760274 19.442785 33.534897 8 4 2 14.000000 
-3.696721 19.457680 33.466068 29 17 12 14.000000 
-3.753807 19.442419 33.343014 13 5 6 14.000000 
-3.750642 19.442684 33.292660 7 8 6 14.000000 
-3.749215 19.442514 33.241524 9 8 6 14.000000 
-3.748527 19.442429 33.216370 9 8 5 14.000000 
-3.744767 19.442621 33.144413 15 8 8 14.000000 
-3.744580 19.442417 33.119823 8 8 6 14.000000 
-3.751159 19.440321 33.072350 10 12 5 14.000000 
-4.112696 19.353106 33.569469 11 7 5 14.000000 
-4.025753 19.371502 33.298481 14 10 11 14.000000 
-3.760366 19.438280 33.513783 12 7 6 14.000000 
-3.748421 19.435925 32.995178 18 15 13 14.000000 
-3.808355 19.419983 32.861595 54 39 28 14.000000 
-3.774024 19.427505 32.779179 38 29 26 14.000000 
-3.746855 19.433941 32.761448 49 31 25 14.000000 
-3.746979 19.433491 32.719902 47 30 21 14.000000 
-4.249781 19.316238 33.534008 24 17 13 14.000000 
-4.091045 19.351645 33.247597 14 7 7 14.000000 
-3.759449 19.434212 33.494175 9 7 7 14.000000 
-3.758714 19.434103 33.465992 8 8 6 14.000000 
-3.736816 19.439270 33.454151 17 11 8 14.000000 
-3.752699 19.434114 33.323978 12 6 6 14.000000 
-3.750938 19.434017 33.272480 8 8 7 14.000000 
-3.748704 19.433792 33.197010 9 7 5 14.000000 
-3.749177 19.432013 33.032623 19 11 13 14.000000 
-3.807911 19.415876 32.839447 23 17 9 14.000000 
-3.778685 19.422632 32.809437 34 21 15 14.000000 
-4.271561 19.308363 33.606949 23 15 16 14.000000 
-4.139514 19.337214 33.336712 25 15 16 14.000000 
-4.003239 19.369436 33.298206 13 9 7 14.000000 
-3.709677 19.441311 33.456734 25 15 8 14.000000 
-3.755332 19.429455 33.365318 8 9 6 14.000000 
-3.743069 19.429726 33.102024 16 9 9 14.000000 
-3.750723 19.427404 33.053841 18 15 10 14.000000 
-3.747447 19.427198 32.955822 22 14 11 14.000000 
-4.254865 19.307673 33.449463 17 10 10 14.000000 
-4.249784 19.308649 33.426689 21 12 9 14.000000 
-4.242539 19.310173 33.407589 23 13 13 14.000000 
-4.230826 19.312731 33.385624 26 15 12 14.000000 
-4.141383 19.333242 33.314186 30 17 21 14.000000 
-4.122253 19.337490 33.285061 28 18 13 14.000000 
-4.068824 19.349800 33.247925 15 12 9 14.000000 
-3.980153 19.371378 33.299549 12 11 9 14.000000 
-3.756945 19.425873 33.446671 12 7 6 14.000000 
-3.752233 19.425550 33.304386 11 9 7 14.000000 
-3.750392 19.425472 33.253429 10 8 5 14.000000 
-3.749156 19.425516 33.228745 8 7 8 14.000000 
-3.747968 19.425293 33.178810 9 7 5 14.000000 
-3.744674 19.425858 33.157150 15 7 9 14.000000 
-3.744022 19.425768 33.132912 6 6 5 14.000000 
-3.748114 19.423223 32.977268 25 14 12 14.000000 
-3.792379 19.411161 32.823601 36 27 20 14.000000 
-3.748367 19.421162 32.778637 26 19 11 14.000000 
-3.747899 19.420927 32.744205 42 25 24 14.000000 
-3.747397 19.420637 32.703529 42 30 24 14.000000 
-4.270912 19.302044 33.583195 20 15 13 14.000000 
-4.269716 19.302120 33.562984 18 10 6 14.000000 
-4.257226 19.304174 33.475800 20 11 11 14.000000 
-4.216579 19.312637 33.366665 35 22 20 14.000000 
-3.760539 19.421663 33.528664 7 6 3 14.000000 
-3.755723 19.420933 33.344437 7 7 6 14.000000 
-3.750895 19.419359 33.075832 22 15 10 14.000000 
-3.749717 19.419008 33.013550 21 17 13 14.000000 
-3.806100 19.404333 32.874901 51 40 34 14.000000 
-3.779725 19.409708 32.791809 94 64 43 14.000000 
-4.256221 19.301516 33.508041 28 20 12 14.000000 
-4.198319 19.313473 33.353825 33 20 14 14.000000 
-4.140987 19.326252 33.293972 30 20 17 14.000000 
-4.116044 19.331682 33.254951 50 29 26 14.000000 
-4.047522 19.347601 33.246826 18 6 7 14.000000 
-3.958645 19.368866 33.297520 8 8 5 14.000000 
-3.760342 19.417299 33.508026 8 7 4 14.000000 
-3.759799 19.417137 33.479420 8 7 4 14.000000 
-3.722553 19.425514 33.447620 14 12 5 14.000000 
-3.683983 19.434597 33.455139 27 17 14 14.000000 
-3.749302 19.416866 33.209358 10 8 7 14.000000 
-3.747826 19.412315 32.722050 50 30 26 14.000000 
-4.251835 19.299767 33.546448 21 11 11 14.000000 
-4.179385 19.314474 33.341980 29 25 19 14.000000 
-4.096789 19.332607 33.243744 19 12 4 14.000000 
-4.022671 19.349846 33.251083 14 12 10 14.000000 
-3.753963 19.412832 33.326229 6 6 3 14.000000 
-3.750957 19.413113 33.284916 8 8 8 14.000000 
-3.742836 19.413282 33.114822 10 9 9 14.000000 
-3.749685 19.410898 33.035351 19 12 14 14.000000 
-3.808339 19.395519 32.856495 54 33 34 14.000000 
-3.807486 19.395508 32.835636 31 22 22 14.000000 
-4.140878 19.320154 33.348534 9 10 4 14.000000 
-4.002727 19.350967 33.257706 15 11 7 14.000000 
-3.759171 19.408932 33.458736 7 5 6 14.000000 
-3.742633 19.412546 33.440502 13 11 12 14.000000 
-3.749882 19.408878 33.241272 9 7 10 14.000000 
-3.744257 19.409208 33.145420 7 7 2 14.000000 
-3.751448 19.406664 33.056492 11 10 8 14.000000 
-3.749378 19.406528 32.995647 17 15 10 14.000000 
-3.748286 19.406483 32.965908 21 12 8 14.000000 
-3.747139 19.406528 32.944183 26 14 15 14.000000 
-3.747720 19.404572 32.762054 41 34 22 14.000000 
-3.667516 19.422102 32.672249 211 178 141 14.000000 
-4.113743 19.322226 33.273254 33 17 17 14.000000 
-4.100849 19.324614 33.218616 27 16 17 14.000000 
-4.096797 19.325323 33.197536 22 16 16 14.000000 
-4.086994 19.327335 33.175468 22 19 14 14.000000 
-3.697063 19.418865 33.446079 23 12 13 14.000000 
-3.752573 19.404835 33.307831 7 7 7 14.000000 
-3.750766 19.404823 33.265522 10 7 8 14.000000 
-3.749039 19.404457 33.189732 14 5 6 14.000000 
-3.747267 19.404625 33.166328 6 6 2 14.000000 
-3.791779 19.391024 32.820114 24 28 25 14.000000 
-4.270760 19.286713 33.600166 44 21 18 14.000000 
-4.259181 19.288198 33.488228 20 9 10 14.000000 
-4.257688 19.288242 33.459141 17 9 7 14.000000 
-4.253508 19.288940 33.434772 14 15 6 14.000000 
-4.247694 19.290037 33.413319 15 13 9 14.000000 
-4.236153 19.292419 33.390976 27 15 13 14.000000 
-4.155264 19.310127 33.335510 38 23 17 14.000000 
-4.141985 19.312937 33.316540 39 20 20 14.000000 
-4.076709 19.326040 33.153351 30 18 16 14.000000 
-3.759015 19.400648 33.437710 14 5 5 14.000000 
-3.756349 19.400349 33.347702 7 4 6 14.000000 
-3.749820 19.400566 33.222134 7 7 4 14.000000 
-3.742342 19.400997 33.096310 12 6 7 14.000000 
-3.750067 19.398455 33.016628 14 14 8 14.000000 
-4.271263 19.283257 33.575771 13 11 6 14.000000 
-4.222384 19.292141 33.371288 34 24 18 14.000000 
-4.062232 19.325645 33.136684 60 47 45 14.000000 
-3.717977 19.405760 33.438290 18 10 12 14.000000 
-3.744090 19.396790 33.126308 7 7 7 14.000000 
-3.806596 19.380226 32.869534 55 37 24 14.000000 
-4.262489 19.282043 33.556194 25 15 16 14.000000 
-4.249806 19.284632 33.533466 19 13 8 14.000000 
-4.205556 19.292677 33.356411 39 28 26 14.000000 
-4.142254 19.306122 33.295555 22 16 13 14.000000 
-4.115848 19.311523 33.249397 23 18 14 14.000000 
-4.046786 19.325577 33.121334 38 27 27 14.000000 
-3.755837 19.392265 33.328182 7 6 3 14.000000 
-3.752432 19.392612 33.287277 11 9 6 14.000000 
-3.751219 19.390387 33.037392 10 11 8 14.000000 
-3.807596 19.375956 32.846039 32 23 20 14.000000 
-3.806974 19.375883 32.825069 39 20 17 14.000000 
-4.255328 19.279877 33.512550 27 13 14 14.000000 
-4.187049 19.293205 33.343945 30 24 20 14.000000 
-4.123047 19.306686 33.284134 30 18 17 14.000000 
-4.030174 19.325352 33.107338 41 23 23 14.000000 
-3.750772 19.388290 33.252914 0 4 3 14.000000 
-3.748998 19.388184 33.203064 8 6 7 14.000000 
-3.822564 19.371029 33.106342 18 16 14 14.000000 
-3.821193 19.371101 33.083427 13 6 6 14.000000 
-3.749387 19.386852 33.078262 13 11 8 14.000000 
-3.749914 19.385942 32.998619 20 16 13 14.000000 
-3.749121 19.385895 32.976227 26 15 13 14.000000 
-3.748242 19.385868 32.954140 26 18 11 14.000000 
-4.102344 19.307180 33.229626 24 17 18 14.000000 
-4.100294 19.307388 33.205780 28 17 18 14.000000 
-4.092777 19.308777 33.180649 33 20 13 14.000000 
-4.010937 19.325783 33.096489 39 31 27 14.000000 
-3.754258 19.383888 33.309956 8 8 6 14.000000 
-3.820930 19.366844 33.058708 22 16 9 14.000000 
-3.743141 19.384302 33.108192 6 4 10 14.000000 
-3.752549 19.381752 33.058083 15 7 9 14.000000 
-3.778833 19.373663 32.821095 201 165 131 14.000000 
-4.259276 19.272121 33.472164 18 12 11 14.000000 
-4.164814 19.291161 33.335827 37 20 20 14.000000 
-4.141186 19.296221 33.331512 34 18 11 14.000000 
-4.081851 19.307318 33.159260 29 20 17 14.000000 
-3.989239 19.326620 33.088402 25 25 19 14.000000 
-3.750819 19.379578 33.233540 8 6 7 14.000000 
-3.750927 19.377422 33.019291 13 11 5 14.000000 
-4.284660 19.264626 33.603600 28 16 11 14.000000 
-4.256382 19.269081 33.444439 15 12 7 14.000000 
-4.251324 19.269936 33.421638 16 14 14 14.000000 
-4.243899 19.271336 33.402824 22 12 10 14.000000 
-4.231865 19.273695 33.381355 24 15 12 14.000000 
-4.141880 19.292238 33.310661 25 15 13 14.000000 
-4.113403 19.297892 33.266838 23 15 20 14.000000 
-4.068759 19.306185 33.140785 36 19 18 14.000000 
-3.752351 19.375216 33.274532 5 7 3 14.000000 
-3.795603 19.363743 33.051628 12 8 10 14.000000 
-3.748197 19.372744 32.936493 20 13 8 14.000000 
-3.804844 19.359934 32.867184 56 33 24 14.000000 
-3.793190 19.362179 32.841988 144 136 70 14.000000 
-4.271568 19.263700 33.568485 10 6 6 14.000000 
-4.252917 19.267410 33.544456 19 12 11 14.000000 
-4.217196 19.273167 33.363068 28 18 9 14.000000 
-4.053324 19.305513 33.125343 122 70 53 14.000000 
-3.966642 19.323429 33.080208 40 30 35 14.000000 
-3.750684 19.370522 33.214485 9 7 5 14.000000 
-3.823335 19.353928 33.093689 9 8 6 14.000000 
-3.751899 19.368534 33.040150 9 8 5 14.000000 
-3.750190 19.368372 32.987125 24 13 26 14.000000 
-3.749117 19.368380 32.965126 17 10 6 14.000000 
-3.783441 19.360186 32.872177 122 97 64 14.000000 
-3.772591 19.362299 32.853275 152 125 82 14.000000 
-4.259232 19.262470 33.500729 28 19 16 14.000000 
-4.199811 19.273428 33.349033 31 24 21 14.000000 
-4.134505 19.286556 33.291042 45 23 21 14.000000 
-4.114552 19.290289 33.245251 26 15 15 14.000000 
-4.037134 19.305204 33.110920 41 24 26 14.000000 
-3.941820 19.324860 33.075314 36 23 20 14.000000 
-3.821476 19.350077 33.070591 22 16 17 14.000000 
-3.767410 19.361277 33.055222 6 5 2 14.000000 
-3.747060 19.364145 32.913437 28 25 20 14.000000 
-3.761392 19.360783 32.877636 93 55 52 14.000000 
-3.749773 19.363041 32.859276 169 139 117 14.000000 
-4.271295 19.257679 33.589172 22 9 8 14.000000 
-4.252355 19.260944 33.521614 31 16 16 14.000000 
-4.180101 19.274143 33.338409 39 27 27 14.000000 
-4.102918 19.288967 33.215218 27 16 15 14.000000 
-4.098766 19.289623 33.194286 38 15 17 14.000000 
-4.018864 19.305294 33.098999 35 30 22 14.000000 
-3.921749 19.325232 33.072872 26 20 15 14.000000 
-3.750978 19.360109 33.008007 21 12 12 14.000000 
-4.150316 19.276993 33.332611 25 14 15 14.000000 
-4.089182 19.287987 33.171108 19 17 8 14.000000 
-3.998568 19.305849 33.089420 43 28 31 14.000000 
-3.807899 19.344767 33.051319 53 27 33 14.000000 
-3.799696 19.346151 33.020340 34 29 27 14.000000 
-3.749159 19.355848 32.947510 19 16 13 14.000000 
-3.731152 19.358559 32.845936 166 120 102 14.000000 
-4.259450 19.252787 33.465706 23 15 3 14.000000 
-4.116200 19.280155 33.276661 32 19 18 14.000000 
-4.077462 19.286818 33.150928 98 62 45 14.000000 
-3.901162 19.322016 33.070034 45 26 27 14.000000 
-3.752873 19.351883 33.028053 17 8 10 14.000000 
-3.747204 19.351742 32.896194 16 19 11 14.000000 
-4.269624 19.248480 33.555538 25 16 13 14.000000 
-4.254764 19.250246 33.430733 15 14 9 14.000000 
-4.248495 19.251308 33.409985 26 14 13 14.000000 
-4.236984 19.253414 33.387581 18 15 10 14.000000 
-4.141324 19.272041 33.315178 24 10 12 14.000000 
-4.063597 19.285965 33.133587 103 47 37 14.000000 
-3.975829 19.303204 33.081722 58 38 32 14.000000 
-3.880143 19.322426 33.068253 21 19 15 14.000000 
-3.823731 19.334122 33.097256 12 10 6 14.000000 
-3.777112 19.342699 33.010567 20 12 8 14.000000 
-3.750485 19.347889 32.990643 17 12 11 14.000000 
-3.750561 19.347645 32.967487 19 11 11 14.000000 
-4.281322 19.243557 33.601940 19 12 12 14.000000 
-4.223810 19.252752 33.367104 32 15 18 14.000000 
-4.115464 19.273376 33.257675 54 36 30 14.000000 
-4.104395 19.275385 33.236492 28 24 17 14.000000 
-4.048245 19.285469 33.118198 34 26 9 14.000000 
-3.951953 19.304348 33.075924 47 45 25 14.000000 
-3.856933 19.323318 33.068649 30 15 17 14.000000 
-3.821305 19.330519 33.074787 18 9 8 14.000000 
-3.748636 19.343666 32.930683 22 14 15 14.000000 
-3.746614 19.343508 32.873207 26 18 14 14.000000 
-3.746325 19.343355 32.851604 33 20 20 14.000000 
-4.252391 19.245798 33.538342 25 13 14 14.000000 
-4.256848 19.244629 33.509457 33 19 14 14.000000 
-4.207335 19.252899 33.351818 34 26 23 14.000000 
-4.141358 19.265436 33.294739 30 22 19 14.000000 
-4.030871 19.285509 33.105335 38 21 14 14.000000 
-3.797302 19.331209 33.035503 26 18 16 14.000000 
-3.751832 19.340002 33.011154 21 14 11 14.000000 
-4.260206 19.240829 33.481842 23 11 10 14.000000 
-4.188285 19.253586 33.340382 34 28 25 14.000000 
-4.166939 19.257715 33.333015 31 23 20 14.000000 
-4.103178 19.269051 33.209873 31 19 17 14.000000 
-4.095432 19.270329 33.184952 20 19 13 14.000000 
-4.011533 19.285955 33.094784 39 31 24 14.000000 
-3.932320 19.301329 33.072472 45 42 38 14.000000 
-3.912345 19.305243 33.070667 37 30 29 14.000000 
-3.815656 19.324123 33.055290 24 17 16 14.000000 
-3.796937 19.327381 33.011616 35 23 25 14.000000 
-3.749958 19.336033 32.950718 23 16 12 14.000000 
-3.719563 19.340992 32.845860 162 124 104 14.000000 
-4.271692 19.236639 33.581684 17 16 12 14.000000 
-4.085127 19.268890 33.162876 37 22 20 14.000000 
-3.990910 19.286507 33.085609 49 32 28 14.000000 
-3.748345 19.332138 32.913952 26 16 18 14.000000 
-3.685564 19.343731 32.846905 163 135 115 14.000000 
-4.142467 19.256138 33.328236 32 14 10 14.000000 
-4.121919 19.259655 33.282188 38 20 17 14.000000 
-4.072915 19.267759 33.143444 37 24 22 14.000000 
-3.890519 19.302267 33.069229 34 23 19 14.000000 
-3.840100 19.311995 33.067822 28 13 23 14.000000 
-3.750754 19.328392 32.979122 13 11 6 14.000000 
-3.747823 19.328102 32.891495 27 16 17 14.000000 
-4.252228 19.232906 33.419247 25 14 9 14.000000 
-4.241737 19.234676 33.395107 35 24 18 14.000000 
-4.115641 19.257322 33.244411 28 16 14 14.000000 
-4.058429 19.267120 33.127014 34 24 21 14.000000 
-3.966984 19.284153 33.079357 60 42 33 14.000000 
-3.869429 19.302708 33.067505 22 23 17 14.000000 
-3.773132 19.320580 33.010315 18 14 12 14.000000 
-3.747929 19.324022 32.868702 23 17 16 14.000000 
-3.743650 19.324598 32.843594 120 72 43 14.000000 
-4.271863 19.227482 33.556381 11 9 8 14.000000 
-4.251316 19.231062 33.524750 14 11 5 14.000000 
-4.227292 19.234156 33.376488 50 35 30 14.000000 
